ply
format ascii 1.0
element vertex 708
property float x
property float y
property float z
property uchar red
property uchar green
property uchar blue
end_header
20.633499835669436 7.437313321869289 90.81290341446908 255 255 255
3.7593527498024076e-08 3.760543407080001e-08 1.2700837506932957e-07 255 255 255
19.14383724856336 11.519232015696952 84.2473865329528 255 255 255
22.984782016962892 -3.7813495006568436 101.09172658941 255 255 255
18.003682647658195 13.953075217653504 79.16509839259324 255 255 255
17.386489523662892 14.302277632361031 76.38886796457021 255 255 255
16.738959944562026 14.148436744450157 73.53222013487165 255 255 255
17.409755279741766 14.090844168831074 76.47172668237631 255 255 255
21.665469034859097 7.717009042250292 95.13341973634607 255 255 255
21.665469034859097 7.717009042250292 95.13341973634607 255 255 255
23.515868814121553 0.7476143953730513 103.18117349240845 255 255 255
23.389540589064875 -0.47749302510053054 102.6120216422698 255 255 255
23.389540589064875 -0.47749302510053054 102.6120216422698 255 255 255
22.60453045794784 -4.774566410330315 99.04161509683289 255 255 255
22.60453045794784 -4.774566410330315 99.04161509683289 255 255 255
22.60453045794784 -4.774566410330315 99.04161509683289 255 255 255
20.64717201292332 -10.03126743059024 90.35562961170233 255 255 255
18.998310453668722 -12.472257010700782 83.13970184002987 255 255 255
16.981310224110832 15.197722675481467 74.33583130782598 255 255 255
21.233183903147097 8.033017540821415 92.8522008341133 255 255 255
23.4419374963963 1.769931818251054 102.40943894996032 255 255 255
-0.510537326863457 0.11099712664666901 -2.249959974827607 255 255 255
19.204176808806473 11.915951628543647 83.75032949933157 255 255 255
19.426828590742495 11.208052258161176 84.65049894638416 255 255 255
3.759352749802431e-08 3.7605434070799974e-08 1.2700837506932933e-07 255 255 255
19.426828590742495 11.208052258161176 84.65049894638416 255 255 255
22.475127899754174 4.9173185718636265 97.93309289430384 255 255 255
23.1955926783967 1.0922142028553736 101.05096985855347 255 255 255
23.1955926783967 1.0922142028553736 101.05096985855347 255 255 255
19.30270454512341 11.568385244109358 84.0703910462767 255 255 255
22.698657688406772 -6.378669542187431 98.81973610157385 255 255 255
17.493438664673715 13.61004240821687 76.1568929610472 255 255 255
20.79517202564556 2.390218280254739 90.5304087333422 255 255 255
3.8589057730699256e-08 3.692822675397304e-08 1.2572810755114604e-07 255 255 255
22.319471617175115 5.724485432455669 96.8890702160052 255 255 255
22.954758910435416 -1.8753498368426709 99.59574666634639 255 255 255
23.173312517442856 0.005494227177129222 100.53243876508392 255 255 255
20.95746333099821 -8.697632713143387 90.69588561317737 255 255 255
20.95746333099821 -8.697632713143387 90.69588561317737 255 255 255
19.125881694398558 9.938464535847404 82.7870717479511 255 255 255
20.238174924320358 -10.85796895505133 87.42945593413377 255 255 255
23.013632938530208 2.248094269915597 99.36350836714895 255 255 255
21.88771404455409 6.008698518363725 94.50275089414517 255 255 255
18.744170858851746 12.742147632249546 80.91909875123574 255 255 255
23.012797833416293 -6.4122081347874404 99.13329464270453 255 255 255
19.38538510893391 6.6023427566277855 83.46191457094214 255 255 255
19.38538510893391 6.6023427566277855 83.46191457094214 255 255 255
21.84375869394584 7.062860034073136 94.0355921522298 255 255 255
19.93976905628709 -11.855765155646608 85.76809173450953 255 255 255
22.107569241264226 5.305759436316111 95.11696832990708 255 255 255
20.834991319749008 7.8531706514719035 89.56884945883861 255 255 255
19.81747165946144 10.699799881719954 85.14078676811837 255 255 255
20.77173653710681 8.775389308219205 89.1937522495694 255 255 255
22.53917208879557 1.4914435743958283 96.7506143603533 255 255 255
19.07750189693711 11.623980772466542 81.86172752135708 255 255 255
19.07750189693711 11.623980772466542 81.86172752135708 255 255 255
3.7593527498024235e-08 3.7605434070799935e-08 1.270083750693291e-07 255 255 255
19.95112135972315 -11.058788833688046 85.50660625924144 255 255 255
18.255678507344403 13.94293158715407 78.25164391048321 255 255 255
3.8351769106362166e-08 3.7557563436722605e-08 1.1867305631802257e-07 255 255 255
19.335685089201352 -11.023685012025915 82.79969741919385 255 255 255
18.24083139108304 12.584240268328777 78.09834688945098 255 255 255
21.288953259701312 4.461613812757216 91.09308662835629 255 255 255
10.687106317419872 3.1162713192673577 45.71782722444133 255 255 255
-2.529361447875891 -2.793130987015122 -15.216043086679687 255 255 255
19.605505058487044 11.529369645496995 83.80078263359779 255 255 255
18.394778591091793 13.021225550381962 78.58433421251077 255 255 255
22.046244041094173 -5.604938117072583 94.14591519219104 255 255 255
19.45135525860191 11.0586925032554 83.04502962640801 255 255 255
19.45135525860191 11.0586925032554 83.04502962640801 255 255 255
22.50750783732936 -3.8624079660462503 96.05093790765265 255 255 255
18.135634173325112 15.187117513426934 77.30739351451248 255 255 255
18.040494595862164 12.099088414559768 76.86455404117517 255 255 255
20.335355039495205 -10.287914922691119 86.56006374684652 255 255 255
16.856899025215537 15.417167767558995 71.68622783524478 255 255 255
22.851728568495304 2.5597445857033487 97.13074105113944 255 255 255
20.236550542520355 -9.433399224415083 85.98105419109238 255 255 255
20.400440732140776 9.907101002286671 86.68199106458506 255 255 255
17.372686810897644 15.614322451866617 73.78804022914939 255 255 255
16.430114329869422 15.374485487083021 69.75789773493122 255 255 255
20.02860812879313 11.047054558601493 85.01215279649358 255 255 255
17.593845756535078 13.10196272268533 74.65640252161951 255 255 255
17.593845756535078 13.10196272268533 74.65640252161951 255 255 255
17.632149595907485 14.94683567088099 74.77540530314245 255 255 255
20.968629520058567 -8.793014033966182 88.89454011059956 255 255 255
21.154435781659178 4.839805406461321 89.65999693260197 255 255 255
20.634842993925275 4.960217355221683 87.41163203739167 255 255 255
20.350395071132233 -10.084030665185917 86.17875677280878 255 255 255
20.350395071132233 -10.084030665185917 86.17875677280878 255 255 255
20.350395071132233 -10.084030665185917 86.17875677280878 255 255 255
19.24640021883596 12.436307274573112 81.45927600676478 255 255 255
19.24640021883596 12.436307274573112 81.45927600676478 255 255 255
17.233173563043067 14.870929251062831 72.93328528246712 255 255 255
19.60113651837039 11.076219383159955 82.94266863879339 255 255 255
19.460974539424804 10.655188554874126 82.33313599373297 255 255 255
19.803003864878594 10.452845305875316 83.7745825852265 255 255 255
22.69654986310043 1.271915616290851 95.94045708477246 255 255 255
19.539940318245467 9.561628292797987 82.60343776261301 255 255 255
20.17761156670305 -10.851297246951722 85.2474184951597 255 255 255
20.17761156670305 -10.851297246951722 85.2474184951597 255 255 255
19.756402601552917 -11.052092933578715 83.34141622970886 255 255 255
21.770183496652326 6.626649018543712 91.77817965467837 255 255 255
22.025141710889784 -6.657512133416209 92.70334175292408 255 255 255
-39.9653858126023 20.442553047374304 -173.7141013762142 255 255 255
22.560899428622708 7.2665071367831775 94.86457615614309 255 255 255
21.92111588686259 -8.804859140838227 92.08602329356725 255 255 255
20.560156630360353 -10.902407162792755 86.23598364951891 255 255 255
19.697605117767438 10.714877963254933 82.61083824979775 255 255 255
22.004802798751214 -2.842239151531744 92.20320038843543 255 255 255
21.599837900642928 5.346592813320976 90.40904507776283 255 255 255
17.67000949413745 14.826623685952438 73.92337021624745 255 255 255
17.348357393887763 15.643950793565208 72.50293224784811 255 255 255
18.767055811993416 8.519718850366226 78.35647410479442 255 255 255
23.914482233374585 5.446194161521077 99.78693519863707 255 255 255
19.73600491876162 11.317967701883687 82.27207421945513 255 255 255
21.012261771915174 -8.050496735245801 87.54778797594726 255 255 255
23.146057492314576 -4.992437826924183 96.44868941588037 255 255 255
17.163760601185114 15.161258629609938 71.48234878235176 255 255 255
20.882030730626624 -8.84517679579356 86.91152242817466 255 255 255
18.653341200096357 10.911707194886713 77.65694894402824 255 255 255
19.89884000171125 10.01178419683817 82.80057338116993 255 255 255
20.987184264555825 7.362524702556228 87.31875436420616 255 255 255
20.222954256117216 11.203678693793954 84.03724974358924 255 255 255
19.415154038060827 12.331368608392813 80.65739361327508 255 255 255
18.547312759298034 12.669203944851649 77.05050271886027 255 255 255
20.80597878108479 8.428483769048794 86.43305850806355 255 255 255
20.86269449555359 8.08534950349309 86.56528482902552 255 255 255
20.355601659497445 9.596778248532589 84.4492031331058 255 255 255
20.892489386053683 -9.454716943504726 86.63842873915785 255 255 255
20.892489386053683 -9.454716943504726 86.63842873915785 255 255 255
22.125789203879105 -3.229470020802405 91.66637550612674 255 255 255
19.491875690249245 12.147512893414074 80.72050144607041 255 255 255
22.70031908428928 2.4013482252629488 94.0096095563082 255 255 255
21.548328718996387 6.229572083570659 89.16620042507513 255 255 255
18.044873870526587 13.952795777581443 74.65450286168397 255 255 255
21.51645635641153 8.78456410278956 89.01030832623381 255 255 255
21.589183410365276 -7.436948120551062 89.18626268625289 255 255 255
21.589183410365276 -7.436948120551062 89.18626268625289 255 255 255
20.905746036910415 -9.28141193751305 86.33732998789938 255 255 255
19.516912628459373 11.20817721171744 80.599951128711 255 255 255
21.862124232484433 -8.007470606627965 90.25017456173286 255 255 255
17.520281917778107 15.398836301695882 72.24636530343109 255 255 255
19.40796305657606 11.725420998411925 80.02230114498538 255 255 255
19.350089451861855 10.745615407467659 79.7062137891872 255 255 255
21.018144883941094 -8.455429821257178 86.50050056126831 255 255 255
22.194011051574893 -5.505432416272684 91.28973109612423 255 255 255
-0.1654200720819755 -0.021353706754591566 -0.6663523146414557 255 255 255
19.46474883094416 10.295257605449605 80.01571540767424 255 255 255
22.099919909243912 -3.6561750093566867 90.792829982767 255 255 255
19.290717092568137 15.93996012227618 79.17561933298177 255 255 255
19.916207521903925 11.670663227734547 81.75313878464134 255 255 255
21.280861416823083 -7.5370524482739905 87.31212338172003 255 255 255
19.95163364504551 9.9210616751046 81.84809862412669 255 255 255
19.95163364504551 9.9210616751046 81.84809862412669 255 255 255
21.618759630832983 -2.5671011709531775 88.61467856640041 255 255 255
21.520814149947203 5.518039441277526 88.21345267227025 255 255 255
22.00068648359592 5.8501366601448375 90.02358239828305 255 255 255
17.98312010230927 13.980779485319774 73.5577529810449 255 255 255
22.948512819099914 -1.9505095575169784 93.73421213943918 255 255 255
18.648786701783532 12.236929828152773 76.09678704130685 255 255 255
21.388125259679267 4.905036766831194 87.27384839310741 255 255 255
22.181525369459845 -7.36013696801313 90.37180123433835 255 255 255
21.736380419535333 -6.149732592111043 88.54278419414771 255 255 255
18.261267463220765 13.233213591371983 74.38892074218255 255 255 255
23.173572225197574 2.120375259609786 94.33786626376204 255 255 255
18.356286590944283 13.52841919651966 74.69527341208403 255 255 255
22.931403074902644 0.909225413604389 93.29700129259223 255 255 255
22.931403074902644 0.909225413604389 93.29700129259223 255 255 255
20.84371979469522 7.484603685594383 84.6524474523979 255 255 255
20.84371979469522 7.484603685594383 84.6524474523979 255 255 255
18.694040580642447 11.397751374723706 75.92119835001948 255 255 255
18.694040580642447 11.397751374723706 75.92119835001948 255 255 255
21.9335549888496 -4.49261964011515 89.0135306172525 255 255 255
21.9335549888496 -4.49261964011515 89.0135306172525 255 255 255
18.280961281780826 11.657572245099294 74.18932468451199 255 255 255
18.09310507503813 15.980835967965035 73.37663496147945 255 255 255
21.110180349451902 6.976200472292194 85.60723193571064 255 255 255
17.271488091124375 13.278034729042917 69.91134053014584 255 255 255
21.122384770838366 -8.530701986527038 85.48049470513928 255 255 255
21.696435793980054 6.079496846011731 87.74094154953897 255 255 255
21.696435793980054 6.079496846011731 87.74094154953897 255 255 255
21.54445583795616 6.434516497620721 87.1099304097469 255 255 255
21.54445583795616 6.434516497620721 87.1099304097469 255 255 255
22.010669020572525 -5.270581938957897 88.95462881037662 255 255 255
21.693523228096264 -7.8013072814567295 87.65806540680133 255 255 255
20.901946986578487 -3.195005447989223 84.47599946634817 255 255 255
21.665993939074035 -3.751493940763913 87.49054989693013 255 255 255
21.665993939074035 -3.7514939407639134 87.49054989693013 255 255 255
21.07471973354517 7.848148677648198 85.0381130378435 255 255 255
22.613145700210463 2.376587851274565 91.23424795282524 255 255 255
22.22365824381334 -1.8237829796659222 89.6126186174284 255 255 255
22.22365824381334 -1.8237829796659226 89.6126186174284 255 255 255
17.84309102397109 14.72653091422262 71.9533041660313 255 255 255
17.93149125370604 14.492418220199816 72.2232661672806 255 255 255
3.858905960705073e-08 3.6928227032779395e-08 1.2572810909700893e-07 255 255 255
22.52785085786327 4.688833575525769 90.63328767617654 255 255 255
21.55412404689503 4.929690601994077 86.658765085202 255 255 255
21.535643459193782 -6.588155187697291 86.559858368722 255 255 255
3.759352749802411e-08 3.7605434070799955e-08 1.2700837506932896e-07 255 255 255
17.88288026146557 13.184462371490417 71.84080443122691 255 255 255
18.314884584052027 13.745360574453704 73.5579414701654 255 255 255
22.167601817568222 -4.196184618728464 88.98662376729858 255 255 255
21.708033018807402 -3.6040469799629493 87.12603618899092 255 255 255
2710.9859297265243 989.3130470576348 10814.963643426037 255 255 255
21.368625471059747 5.95478748210822 85.64122769338466 255 255 255
22.883843207507088 7.363761226840252 91.6707845648039 255 255 255
21.382033873363053 -8.153935851780489 85.5006063805321 255 255 255
21.382033873363053 -8.153935851780489 85.5006063805321 255 255 255
18.793587305907195 12.332138333770473 75.11021208678399 255 255 255
19.20363698268574 10.026825601257972 76.72867085873678 255 255 255
21.456267995225765 -1.7642160376295402 85.7148498196003 255 255 255
18.609394551522445 13.46076601778915 74.31632979971157 255 255 255
22.59087015977859 -2.6577460238096506 90.19944082675764 255 255 255
19.27039335930567 10.315571410860462 76.9168917693611 255 255 255
22.557590275044557 -6.8066962578301515 89.9657904872236 255 255 255
23.7736594725555 1.7814327849513172 94.82191399123381 255 255 255
20.20584469014074 9.720691217812293 80.57922257008816 255 255 255
18.184513731303284 15.121960570825077 72.51079834721202 255 255 255
22.28091396582755 -6.295286133501513 88.80373032259693 255 255 255
18.99200044189521 12.02844371154609 75.6068837291273 255 255 255
18.99200044189521 12.02844371154609 75.6068837291273 255 255 255
18.99200044189521 12.02844371154609 75.6068837291273 255 255 255
22.170466951026402 4.9025289989484815 88.25262262344515 255 255 255
21.653277478330843 -8.031084452463423 86.16513031127108 255 255 255
21.235566350841793 -7.095337893616846 84.36613875617442 255 255 255
16.771244060582248 9.68351180472321 66.6265642075206 255 255 255
19.51445480521205 9.989519134526033 77.43633607176251 255 255 255
20.152188853284095 9.249448932402844 79.9094255146916 255 255 255
19.404556208057617 14.582563244457239 98.19365972121264 255 255 255
20.214171123850903 9.30283727594001 80.1261569947973 255 255 255
21.51358427798732 6.247596983057263 85.26678146272967 255 255 255
21.51358427798732 6.247596983057263 85.26678146272967 255 255 255
22.32589076744976 -3.1309589189272025 88.3880636390665 255 255 255
24.21145377312076 8.388775030959277 95.81048857237172 255 255 255
24.21145377312076 8.388775030959277 95.81048857237172 255 255 255
21.986713726336223 -4.347203180912263 86.96851813316623 255 255 255
22.295100236214402 -4.824779846074119 88.1309412038251 255 255 255
24.98135139847451 -2.920902111521307 98.64491634714655 255 255 255
19.992378816822225 9.56955678703121 78.89899463107963 255 255 255
18.328062135181696 14.372673908374484 72.31226889056119 255 255 255
21.895404526326093 -1.2421315152219605 86.33973686969614 255 255 255
-0.7535076333513419 -0.36950358240154146 -3.064052973935144 255 255 255
21.31282150713339 -5.726261096736845 83.90866752289719 255 255 255
21.813393698640706 -5.614707672565867 85.87503063484507 255 255 255
3.759352710363806e-08 3.760543442467094e-08 1.2700837482486647e-07 255 255 255
21.64021402271494 7.012590187843808 85.2017185418647 255 255 255
21.709401974759793 -7.597585126812836 85.42907835134139 255 255 255
21.709401974759793 -7.597585126812836 85.42907835134139 255 255 255
21.864496009844682 5.072410539154872 86.04572621778424 255 255 255
21.410274240571116 4.7554775762549095 84.20953587045595 255 255 255
18.173257003436905 14.249139967673367 71.37919300416276 255 255 255
22.243461630392584 -1.0568536110513502 87.3553701429544 255 255 255
19.218583720070328 11.846338056774048 75.47237578169076 255 255 255
22.62913566512642 -4.996261870272372 88.8204887431585 255 255 255
21.22712027784852 -6.595536058918722 83.24241999870624 255 255 255
22.071183289354792 -2.650940932068013 86.53766851672864 255 255 255
22.219912147485214 2.295439523553205 87.1051474567327 255 255 255
21.132865725107145 7.27162591612052 82.81976622378194 255 255 255
-4.100167043510984 -0.9200902607103052 -16.832852248065933 255 255 255
22.301526375066583 4.68584091237149 87.36820896091803 255 255 255
22.645028905697682 -3.371466948514387 88.61115248391904 255 255 255
22.645028905697682 -3.371466948514387 88.61115248391904 255 255 255
18.936866846320545 10.643580424448068 74.07832878622568 255 255 255
23.659898094276254 -2.522124630683933 92.50577296526707 255 255 255
18.645835693237824 13.383759714089855 72.8069324771459 255 255 255
18.909141373042285 13.784914738562522 73.79338135661301 255 255 255
3.759352749802423e-08 3.7605434070799915e-08 1.2700837506932915e-07 255 255 255
21.340040993368724 6.413782247789248 83.21061165103941 255 255 255
22.54609587462575 -5.621382311602467 87.88768543214931 255 255 255
22.54609587462575 -5.621382311602467 87.88768543214931 255 255 255
21.65611520172072 4.152723694008937 84.39465542836065 255 255 255
18.451341847358407 15.024079728814657 71.89663339535494 255 255 255
22.26639124043327 -7.023085589453023 86.73145959070763 255 255 255
22.505030809684257 1.1560943313275316 87.5682247500345 255 255 255
21.537855120027665 3.0086518443764074 83.78351218840446 255 255 255
22.572309479183915 -6.957036514244499 87.77838604177396 255 255 255
22.572309479183915 -6.957036514244499 87.77838604177396 255 255 255
20.23344826838841 10.841460331828664 78.63423545977133 255 255 255
22.204698038942055 0.8881582714397828 86.18621781470716 255 255 255
18.75838792055605 12.924209806375641 72.79758436313395 255 255 255
19.27377682788245 11.74454360691847 74.7843951171125 255 255 255
18.651520150981362 5.983615654102642 72.36543796253699 255 255 255
20.078777065067314 10.305655127832214 77.81113922392204 255 255 255
22.447931398021897 -4.22824586433931 86.94814948272096 255 255 255
18.541707805474573 15.58379469126859 71.8197087776899 255 255 255
22.74171112519078 3.484215247594055 88.06014484159289 255 255 255
21.67455569026855 -5.427935813793651 83.9045147267049 255 255 255
21.67455569026855 -5.427935813793651 83.9045147267049 255 255 255
18.578023476199526 14.28988992901127 71.80553046024741 255 255 255
21.827579502561544 -4.65213119670033 84.35914099578433 255 255 255
21.334171362399815 -5.079645200314486 82.42802906803242 255 255 255
19.733723031512287 11.609169332701512 76.10860838592504 255 255 255
21.3527205622256 5.280482498169007 82.32295212302814 255 255 255
21.534397061833474 3.474709645472502 82.97101939415941 255 255 255
22.867188790774055 1.9428601285134397 88.0719355192298 255 255 255
19.208528760452623 12.493231020324906 73.96736042972965 255 255 255
-4.311102448255861 -1.597557508088907 -24.407632269220805 255 255 255
19.05637213527856 12.860914100679258 73.31908789382672 255 255 255
18.661047985826215 14.158119595806964 71.76163006610844 255 255 255
21.99251327152024 -4.108649026927336 84.52759773478763 255 255 255
22.342784169422085 4.75076348154451 85.88154871749522 255 255 255
20.576910159413277 8.614797157006375 79.02182701195872 255 255 255
22.14313684077015 -3.892833966441396 85.02071410680254 255 255 255
19.93857616511706 9.183492611835321 76.5343888678816 255 255 255
21.885567219713412 -5.295894805939369 83.87740134400644 255 255 255
20.615619764631617 13.601698548020504 78.9694965343826 255 255 255
19.359833123984387 12.19071891301928 74.09491572266349 255 255 255
19.25052961134463 14.752398677201711 73.526704526166 255 255 255
18.995387686008343 13.766670857304694 72.52720019289333 255 255 255
21.035280116318443 6.550851490124304 80.15381474320482 255 255 255
18.98688215896815 10.611248040536227 72.34874219867883 255 255 255
21.84238573419061 -5.46047376057094 83.20450482861715 255 255 255
22.83046863697383 2.1912680431888956 86.98062183050364 255 255 255
19.47419698916133 11.781248718414815 74.17531403804715 255 255 255
-0.9554216130880303 -0.7048663420747429 -3.9023721294320013 255 255 255
19.47419698916133 11.781248718414815 74.17531403804715 255 255 255
22.66860412915772 -1.999486462465321 86.31413101193169 255 255 255
20.754403127446082 7.683935066007361 79.02382869096776 255 255 255
19.53019817890414 11.34642171060016 74.36123740312323 255 255 255
21.299456402358206 5.41762372391001 81.07931998989227 255 255 255
18.828137470886492 13.121390547920813 71.52088587602191 255 255 255
22.659568987665867 -3.1361832042517603 86.01705871292017 255 255 255
21.91875270095125 -3.800769603640653 83.19290722443519 255 255 255
21.91875270095125 -3.800769603640653 83.19290722443519 255 255 255
20.024542808843805 10.335610309846118 75.97624668598404 255 255 255
21.812792270522166 -4.7875536391711675 82.61373333971262 255 255 255
22.508610017638777 0.9064285658329322 85.2395697152399 255 255 255
21.75076710015645 -2.2626500948985475 82.34930128265964 255 255 255
21.75154392031838 5.355329151670534 82.33912809159806 255 255 255
19.808087780059203 9.858670483542857 74.95384711428602 255 255 255
21.863511539083728 -5.220620908112463 82.69978707829063 255 255 255
20.984367009792052 8.319583633054005 79.32486627866156 255 255 255
19.23071476779222 14.405214434492015 72.67739622628184 255 255 255
19.0816792163742 14.645772558615729 71.9174753422396 255 255 255
19.0816792163742 14.645772558615729 71.9174753422396 255 255 255
22.734860389979705 -2.9760390081446495 85.56936893968071 255 255 255
18.73079743720065 14.62802540416574 70.45057998851861 255 255 255
19.843667348763102 11.691731559847062 74.57213409185411 255 255 255
3.7593527498024175e-08 3.760543407079991e-08 1.270083750693293e-07 255 255 255
20.50664566409209 8.709774288775234 76.88851668955327 255 255 255
22.073308026387434 4.755803242405569 82.76255141046808 255 255 255
21.522232410789083 -5.761133684286533 80.6605576097161 255 255 255
22.058726202819322 -5.344053871285186 82.66157416886074 255 255 255
19.6533601931663 15.666039818183414 73.65927660726628 255 255 255
20.45035042955811 8.199263743056251 76.57113483181051 255 255 255
18.74753963256225 11.47470384966366 70.18863718182875 255 255 255
19.765968654524034 11.021443004737185 73.9382054283473 255 255 255
19.765968654524034 11.021443004737185 73.9382054283473 255 255 255
21.817679503220777 -2.9644040293765084 81.57600387244813 255 255 255
21.90020734449513 -3.317902127846145 81.86264316519198 255 255 255
21.30195087994781 3.656700680681662 79.61687134006857 255 255 255
22.592700163451028 -2.4197289552678645 84.40482362985233 255 255 255
19.922814648563275 11.093928333848112 74.34680388597002 255 255 255
19.442025667510475 -6.3882125060694515 72.55397940510582 255 255 255
19.10605518635792 11.798755166259264 71.22233617107486 255 255 255
2.4679882446003285 1.7171836516967147 9.723232244677972 255 255 255
19.446026318007046 12.84511999498376 72.39174635951748 255 255 255
22.31529626063855 4.218790547492375 83.04954413716673 255 255 255
20.77105414957234 7.828117128608064 77.28326476004442 255 255 255
-0.7522832290953211 -0.6966433728692828 -3.12753679978109 255 255 255
21.66626557851109 -6.34473420164311 80.40122342812202 255 255 255
21.586849456495038 -5.589281333512267 80.08460352695091 255 255 255
22.89502307344319 -3.1837756935618886 84.89992470208234 255 255 255
21.999733537741193 -5.134205331804518 81.55718087453128 255 255 255
21.563487046190016 -4.035660948917106 79.80453319456342 255 255 255
19.303387689479223 12.283462049787543 71.41880241704645 255 255 255
23.149460856054553 7.24736932724352 85.59808253703633 255 255 255
19.470498097437986 14.234362606552734 71.96133881054598 255 255 255
19.470498097437986 14.234362606552734 71.96133881054598 255 255 255
22.161401818251974 -3.4398168366947393 81.88596399177557 255 255 255
19.49064816080416 13.42164731782458 71.98340301995165 255 255 255
19.49064816080416 13.42164731782458 71.98340301995165 255 255 255
19.669713906292916 9.667305161147242 72.5691351115734 255 255 255
22.106102936546826 1.3164002400952826 81.58223356363904 255 255 255
19.53602067971408 14.76186815286086 72.00762125888413 255 255 255
21.677942158501306 3.4459784527906305 79.8775288459459 255 255 255
20.807314455646615 7.89312557980516 76.61042418706002 255 255 255
23.05283881872633 1.8421981456535588 84.8547382101652 255 255 255
21.092731855212996 -2.97407858734991 77.62675410589524 255 255 255
23.047562674883586 -5.57490780488589 84.73971544079374 255 255 255
23.047562674883586 -5.57490780488589 84.73971544079374 255 255 255
20.456937351430035 8.891681828703268 75.16884800222644 255 255 255
21.686300952214754 5.047475748668698 79.57641338298339 255 255 255
21.686300952214754 5.047475748668698 79.57641338298339 255 255 255
19.606178176860112 11.802967535081763 71.94524381299037 255 255 255
21.51466623339682 5.208206343623224 78.90164706481504 255 255 255
19.414109709207928 14.337921418770316 71.12108383650087 255 255 255
20.38180298121416 2.7009951196949156 74.54516348803455 255 255 255
19.554547162457624 14.839232063754883 71.39662434498554 255 255 255
20.47912805190413 10.536299381880703 74.70576432603293 255 255 255
21.917245213228597 3.6746362168110047 79.93568006468705 255 255 255
21.376676151726777 5.387787002762514 77.95864545431792 255 255 255
21.121133290910382 7.6752868295894645 76.99260518423468 255 255 255
22.22226519031309 1.0250809691004399 80.88899096836899 255 255 255
21.851480748641407 4.513563047899307 79.53551902078647 255 255 255
21.851480748641407 4.513563047899307 79.53551902078647 255 255 255
22.293794641990797 2.008423566993542 81.13049448914643 255 255 255
19.826614572808246 15.130699398762147 72.10932466930636 255 255 255
19.826614572808246 15.130699398762147 72.10932466930636 255 255 255
22.240601861273998 -6.566740038224498 80.85596727831049 255 255 255
22.03158620020549 -3.504272642879113 79.93985847651126 255 255 255
21.776558415344017 -5.10056083540634 78.89096751666466 255 255 255
19.717980755319612 14.582205150744342 71.39508746473163 255 255 255
21.733816118983103 -5.33313595320195 78.66202296374361 255 255 255
22.140202106253877 -3.6509660606960863 80.09676246062286 255 255 255
21.628556698697995 -6.52122181468211 78.20713619920048 255 255 255
22.22406695161059 -2.797095660123067 80.27985183976962 255 255 255
5.365046260447967 -0.7745203870243876 19.35988758919205 255 255 255
22.042482196659197 -3.1358694882607625 79.45041774169691 255 255 255
1648.2143794798392 148.2649027398889 15572.225215634791 255 255 255
19.485910810892847 13.47171393363407 70.2337757764994 255 255 255
20.506801587005732 11.559414791049752 73.84060346031956 255 255 255
19.75660426240363 13.02608712700575 71.05766559652906 255 255 255
19.75660426240363 13.02608712700575 71.05766559652906 255 255 255
21.933946253666804 -4.6406599624866995 78.85903939957346 255 255 255
21.933946253666804 -4.6406599624866995 78.85903939957346 255 255 255
20.511503318908815 7.564951613522376 73.75092723416896 255 255 255
20.511503318908815 7.564951613522376 73.75092723416896 255 255 255
20.32997808935279 7.708348604239743 73.08934191709824 255 255 255
19.902242345416813 13.324573499346423 71.51373484730182 255 255 255
21.73197916813439 3.0470504489830006 78.03696140486623 255 255 255
21.624188544986183 5.126920674671373 77.45915603833697 255 255 255
21.624188544986183 5.126920674671373 77.45915603833697 255 255 255
20.00300825963613 11.52530295793719 71.60921382623246 255 255 255
22.024076012132454 4.435231763274128 78.69434218390884 255 255 255
22.024076012132454 4.435231763274128 78.69434218390884 255 255 255
3.75935274980243e-08 3.760543407079996e-08 1.2700837506932944e-07 255 255 255
20.025571240383293 14.244738046398382 71.51214337763597 255 255 255
20.142525328918513 10.95370851242968 71.91814990688026 255 255 255
0.6339288267858526 0.05932646346107772 3.9304504739504287 255 255 255
21.93488442583317 3.9416014126190326 78.23953123629462 255 255 255
22.1694623565463 -3.2790557734715384 79.03525368212595 255 255 255
21.772213760297834 -5.102213699213606 77.60477748358095 255 255 255
21.97154600808419 8.258800152366158 78.22062223841849 255 255 255
19.603378549754712 12.572838324648155 69.63561542954338 255 255 255
22.099874115335805 1.9172614636432228 78.32190752906276 255 255 255
20.02449433464928 15.274749369400379 70.94287117420247 255 255 255
7.193506655826424 -3.58625189320128 24.874637675168717 255 255 255
22.10183819170494 -4.5816290582616785 78.14552944921253 255 255 255
21.74295405295588 3.813833800979421 76.81845673454487 255 255 255
20.34937506028148 13.854189096334999 71.84479048007115 255 255 255
22.41520171198142 -3.551238741805979 79.12296153520784 255 255 255
21.05939570956966 5.081461474066001 74.19423579877295 255 255 255
22.243783577417137 3.594400317540374 78.30675018851325 255 255 255
22.243783577417137 3.594400317540374 78.30675018851325 255 255 255
21.409715461432143 4.691257923957408 75.2797652580474 255 255 255
21.94444124636139 -5.246396541825067 77.1449179042685 255 255 255
21.008191743616692 7.917695275799467 73.85964894964768 255 255 255
3.759352749802413e-08 3.760543407080002e-08 1.2700837506932894e-07 255 255 255
22.71963732460942 5.221804017307535 79.8505218715642 255 255 255
22.308614414213746 -3.0353926965069946 78.37237450205188 255 255 255
21.29093195499012 8.332221725437082 74.75970987340607 255 255 255
22.222344632422118 -5.050273776547202 78.01309953956222 255 255 255
22.222344632422118 -5.050273776547202 78.01309953956222 255 255 255
22.252223302912494 1.2312529034771285 78.01009960977656 255 255 255
21.722775241996004 4.5940369205572305 76.15587702511814 255 255 255
21.436231590944224 7.366880909141406 75.10974151236901 255 255 255
20.198746453645235 12.951230056219991 70.73547807488646 255 255 255
20.485752050543503 11.351424129746581 71.7286458309265 255 255 255
20.387640609215136 13.293308075983052 71.32434971973144 255 255 255
22.419877092566775 -3.9738947160969356 78.39335132422636 255 255 255
21.108953352350134 8.824802429693714 73.80678800421968 255 255 255
22.040083378201814 3.850412610551787 77.04840715819736 255 255 255
22.201349186800257 -3.6450059716424503 77.58701115611603 255 255 255
22.255230739002975 -4.390759628063936 77.77110650600723 255 255 255
22.138104691956453 1.727240253745547 77.05987685047612 255 255 255
20.825365378340155 8.202738096620308 72.42057553924288 255 255 255
20.678648636068775 8.336231824995428 71.86488725137924 255 255 255
22.175087862611704 3.163140944078525 76.94738753570472 255 255 255
20.396708830414106 13.376263647077495 70.74523528590495 255 255 255
20.396708830414106 13.376263647077495 70.74523528590495 255 255 255
21.780659275416003 -5.768209645881155 75.49978107248252 255 255 255
11.363641316820011 4.532128965801276 40.03976323969472 255 255 255
20.948226671653938 7.476260645693896 72.59069127859983 255 255 255
20.948226671653938 7.476260645693896 72.59069127859983 255 255 255
20.513412411582188 14.514762410093631 71.07754885151515 255 255 255
21.861407093852158 2.7263843404857666 75.72981213627907 255 255 255
21.861407093852158 2.7263843404857666 75.72981213627907 255 255 255
22.564451006264534 0.9351844561397175 78.15932033908702 255 255 255
21.751064041368707 3.592050731207648 75.30852038491842 255 255 255
20.129972076658177 13.372900725472958 69.66792486490272 255 255 255
20.129972076658177 13.372900725472958 69.66792486490272 255 255 255
21.768691245792386 -2.7542082178609526 75.30505177041996 255 255 255
22.266697415159936 -5.49900263134851 76.99477858124388 255 255 255
22.155020457824904 1.5196113108125855 76.59046720818647 255 255 255
21.991050672364494 1.869399284943647 75.99221941888715 255 255 255
20.434210553408434 11.640597340030359 70.59959846071952 255 255 255
22.385794186272395 4.070111234624018 77.2789772642596 255 255 255
22.385794186272395 4.070111234624018 77.2789772642596 255 255 255
-0.40727979982397 -0.1032532216896058 -1.4253046179853825 255 255 255
22.48375753490135 -0.32468861013039785 77.53861554285999 255 255 255
22.18578161949908 3.0608595048542138 76.49399978262615 255 255 255
20.80793624416471 15.487932574279176 71.7432782412353 255 255 255
22.195972123163916 5.747640300554545 76.43346214779685 255 255 255
21.89755355722261 5.151814420247506 75.39435049961091 255 255 255
23.829146458717577 6.141099111414432 82.00409664404631 255 255 255
3.7593527853519556e-08 3.760543446444997e-08 1.2700837483033676e-07 255 255 255
22.004041007249445 3.234967129740641 75.7133672917448 255 255 255
20.739962600561984 14.084709512058224 71.32804873220823 255 255 255
22.622851458881986 -1.5602001124852316 77.78280497651451 255 255 255
22.622851458881986 -1.5602001124852316 77.78280497651451 255 255 255
6.382887789088542 3.692236388458951 21.72565426010682 255 255 255
20.610152451904128 11.35152347966282 70.84452524510951 255 255 255
22.557742973449944 1.035564503101382 77.47966757850298 255 255 255
20.837918363861856 -4.734847472535573 71.32334477787886 255 255 255
21.479980360238553 8.367629509938618 73.53112385342266 255 255 255
22.658997397919475 -4.119452274211719 77.53608074481656 255 255 255
21.068602357451603 15.17011814187103 72.03805770310733 255 255 255
21.547718280632015 7.355815624683546 73.60243711468293 255 255 255
20.737747662219245 12.95713895287165 70.8181037022295 255 255 255
20.850925153214174 13.251660903809851 71.2009712516278 255 255 255
20.79059900905508 13.345458133553398 70.9784944418437 255 255 255
20.79059900905508 13.345458133553398 70.9784944418437 255 255 255
22.25054596317811 5.591524703706782 75.95116672389278 255 255 255
10.593206116757287 3.2988312837116003 34.901354674392344 255 255 255
21.11763332167827 8.301642183186864 71.95944245252672 255 255 255
20.88865189152884 14.139768866462324 71.10503567709688 255 255 255
21.316136878008866 7.63272176939406 72.56067258535163 255 255 255
20.929693387360324 13.848413135602854 71.20634346019997 255 255 255
22.464722675061715 3.4067961564388116 76.3774045005705 255 255 255
21.036349622264584 -3.560999384697692 71.42273881642957 255 255 255
21.749620380790432 0.8150549632789014 73.74514335980103 255 255 255
21.515511095542898 7.667253920826689 72.80973416389318 255 255 255
21.515511095542898 7.667253920826689 72.80973416389318 255 255 255
21.554462601010275 -3.383088057744264 72.89356842577358 255 255 255
21.337204826027694 7.936746049627299 72.13907126127593 255 255 255
21.671126571188847 15.814366782158324 73.08487932732348 255 255 255
21.671126571188847 15.814366782158324 73.08487932732348 255 255 255
21.987446408483827 0.47233123662025805 74.0504859441012 255 255 255
21.477733339229918 15.226879341454863 72.33481692216964 255 255 255
21.145103174445833 4.34561115962725 71.19444550257295 255 255 255
22.459647633706645 6.125106019757681 75.60587011632707 255 255 255
3.430857983153242 1.2420617658387378 11.471500106686875 255 255 255
21.672102114503254 8.461994340213552 72.9439178381867 255 255 255
23.71507654847081 -4.892183042183338 79.80861640484787 255 255 255
22.635114246468905 -0.24785451433744368 76.12034567308677 255 255 255
21.418100913342098 5.468626545202956 71.97670497893857 255 255 255
21.418100913342098 5.468626545202956 71.97670497893857 255 255 255
21.51247107984304 8.6900019253865 72.24556947339433 255 255 255
22.917854423632917 -4.058040062173384 76.9087154984169 255 255 255
22.917854423632917 -4.058040062173384 76.9087154984169 255 255 255
21.698349205974996 7.287623008460773 72.80424280069381 255 255 255
22.68512438958563 1.270682986483265 76.11144420703239 255 255 255
23.26468486738135 0.6373888757824914 77.89855061452974 255 255 255
21.96789063146418 5.326048476735071 73.55131984609162 255 255 255
22.398246820622802 -2.783946476165706 74.94145472932344 255 255 255
21.523833041739298 8.052678169867386 71.98551174262626 255 255 255
22.28167473317563 -2.895525686551136 74.44898255622422 255 255 255
22.44174775878785 0.9223847031605904 74.966284549704 255 255 255
19.951937157128977 11.052178234760838 66.52517371959401 255 255 255
21.15486101757286 10.393932208558303 70.52159918074089 255 255 255
22.37148400290263 -3.0710505539058883 74.5472623082647 255 255 255
22.15649520841317 -4.301411368846453 73.70308370062793 255 255 255
21.6623943548263 8.613864301235651 71.9835104007269 255 255 255
24.34801200453756 -0.1433550960712055 80.88930660129782 255 255 255
-1.3086357700633278 -0.3137206975722347 -4.322832235755529 255 255 255
21.776404376300086 5.686641654738791 72.26180370214306 255 255 255
21.719700370154616 11.124181324568264 72.02084443783541 255 255 255
21.92219175344333 8.228110293451238 72.55922695420844 255 255 255
21.906753463316218 14.661791642199232 72.4056872115383 255 255 255
22.6146111840252 -3.217816235522898 74.68667180938135 255 255 255
21.74819379298608 11.476857588499415 71.82339832664807 255 255 255
21.992221912424554 7.043085542468825 72.51780670934833 255 255 255
-2038.7263375287403 -2686.719230209127 -10009.343774422467 255 255 255
8.8197887654476 2.238507490903278 29.060838345406644 255 255 255
22.434982637403984 5.610967483908073 73.85774613400432 255 255 255
22.319536472125275 -0.3232525256717429 73.3856853225397 255 255 255
21.513039466388577 8.478279284931515 70.70285125405498 255 255 255
21.513039466388577 8.478279284931515 70.70285125405498 255 255 255
21.978839978074753 13.386214540900996 72.23137994852551 255 255 255
21.978839978074753 13.386214540900996 72.23137994852551 255 255 255
22.878562545129174 -3.0965117286313766 75.1681143187644 255 255 255
22.096997975895707 -2.661506592853008 72.595596024694 255 255 255
22.80232234889353 0.3563158368342431 74.8204915072542 255 255 255
22.458797825620557 -3.161846533203453 73.64401540707891 255 255 255
22.2103507762459 12.881026316608972 72.83565446927437 255 255 255
22.2103507762459 12.881026316608972 72.83565446927437 255 255 255
22.122846386493066 7.4945578138626345 72.53967871981303 255 255 255
22.538949400371806 6.0058278824466855 73.8649797047252 255 255 255
21.90805844547318 7.556935656179861 71.77855783261053 255 255 255
22.696532978926133 -1.5196603063364935 74.28411655563525 255 255 255
21.661119050850324 8.886561367366385 70.88601467369344 255 255 255
22.30746783399676 9.21415466075373 72.95313692989316 255 255 255
21.474572547680808 12.20783633715973 70.2231150975784 255 255 255
22.39980238877574 3.481992149835811 73.14433444606237 255 255 255
22.39980238877574 3.481992149835811 73.14433444606237 255 255 255
22.303173020687073 3.0800696833799384 72.8114400103824 255 255 255
22.462146616151752 -4.470707760601165 73.30782565741808 255 255 255
22.60229897904303 -0.04259259338424185 73.7225749437367 255 255 255
22.524689040593792 0.2758904904136119 73.39334524238771 255 255 255
21.64183992632007 -3.2850653241399197 70.46155350661581 255 255 255
21.904182364779597 7.456724734683075 71.26004071786285 255 255 255
21.871710872258017 12.98977268506012 71.14369740595865 255 255 255
22.200214305700833 13.411729149333071 72.16797486729288 255 255 255
21.972187983586203 7.624681530184969 71.42021797743999 255 255 255
21.827700616553162 10.051378666282789 70.89250049855767 255 255 255
22.25354505655704 8.267957431745447 72.19566975446912 255 255 255
22.929417477799944 -3.2856218581489522 74.36018131073666 255 255 255
21.736404951042942 8.234696011739837 70.49430953198151 255 255 255
22.569097440817217 -3.0811295145950814 73.18259755378958 255 255 255
22.894736310510602 -1.200620446562548 74.23372596808387 255 255 255
21.709966198964317 11.125048632575266 70.30894069794333 255 255 255
22.772101266480107 -0.06335502940187432 73.61490941281438 255 255 255
21.943670732791904 11.402638820225855 70.93791147717039 255 255 255
23.111337070307115 -2.11459626764493 74.68814664723389 255 255 255
21.592888244476992 9.73796295819161 69.64763327715441 255 255 255
22.737879033469195 -0.96912140836839 73.27385068756232 255 255 255
22.269455264070203 6.522866472958728 71.7172078037772 255 255 255
22.780577036878665 -2.6464469727845414 73.3485208929141 255 255 255
24.21842627804515 8.491057014554565 77.97520635134622 255 255 255
22.477887665746568 5.672375361887784 72.31666160812335 255 255 255
22.83911376269679 -0.22720343619551006 73.42753492281982 255 255 255
21.847216747261502 11.641222608125249 70.19027085177885 255 255 255
22.34488156013017 6.1913788667216885 71.77984059163266 255 255 255
22.34488156013017 6.1913788667216885 71.77984059163266 255 255 255
23.470790261697402 1.5159358841809987 75.38836147583949 255 255 255
21.08571521400239 9.15934508623388 67.69823494663184 255 255 255
22.80613239614419 -2.9791171814691237 73.11691778045846 255 255 255
22.92611795393658 -3.1517843975499926 73.45989605289678 255 255 255
22.768712575292668 -3.8824366971467086 72.9171100937839 255 255 255
22.105146172060177 13.48556125557769 70.80246650095967 255 255 255
22.881224264234643 11.429659092509318 73.27648553833828 255 255 255
22.948433614615013 -3.5588070894217427 73.46013980839945 255 255 255
23.36629377338616 15.774914980681432 74.78923494660437 255 255 255
22.288498170662358 10.216687958003838 71.31683952125617 255 255 255
22.840392042170343 -0.6750605460324566 72.98525395246419 255 255 255
23.013377281006775 -2.4238623064014178 73.4857046863633 255 255 255
-1.2380963025146976 -0.6982775921188259 -4.108259466506906 255 255 255
22.695670118938427 8.612038006937377 72.42560628443738 255 255 255
22.46572847225391 8.67428118419189 71.52418968467671 255 255 255
22.07681528553003 9.636977891897436 70.26629588659094 255 255 255
22.07681528553003 9.636977891897436 70.26629588659094 255 255 255
23.12557779296785 -2.686026429944671 73.53414475999602 255 255 255
23.33776340544496 -0.07658252207399847 74.19571668546841 255 255 255
22.391944543761532 11.35676946744697 71.17691360895209 255 255 255
-1.7832874689782374 -1.3142721081971638 -5.976235507261838 255 255 255
22.193230582549724 0.26927653006345625 70.45426508664347 255 255 255
22.295135484346453 -2.2111398814225747 70.77012521079769 255 255 255
22.761474114150737 13.411468403263983 72.24251850450183 255 255 255
23.233473356083188 -2.8968709580399405 73.70316077341847 255 255 255
22.39302985525859 7.813369325168813 70.96515393773808 255 255 255
23.379008387484124 15.543562586321586 73.96873799657753 255 255 255
22.559365528459413 11.757795067597057 71.35055636055063 255 255 255
23.209699852532744 -1.0067804717409177 73.37741487558952 255 255 255
23.709050607615595 7.164814731607992 74.82221170721552 255 255 255
22.65689123653044 10.812571119205872 71.47094859549294 255 255 255
23.229808494369063 -2.533823438523417 73.25193317225715 255 255 255
22.526830832713706 8.794337428004827 71.03527516872737 255 255 255
23.15663241358134 7.799987663798759 72.98616560314451 255 255 255
22.917326152107773 10.048983053022882 72.17740193798478 255 255 255
22.917326152107773 10.048983053022882 72.17740193798478 255 255 255
3.759352749802431e-08 3.76054340708e-08 1.2700837506932928e-07 255 255 255
22.990651747826334 10.60361127895202 72.24125376626134 255 255 255
22.990651747826334 10.60361127895202 72.24125376626134 255 255 255
23.784937036353885 15.979671337451295 74.673162395991 255 255 255
22.98978717892005 -1.304621457413828 72.14868106865949 255 255 255
23.620944956410224 3.1707148120573283 74.13310015268006 255 255 255
23.172075584283885 -1.6631310650097793 72.62160370119801 255 255 255
24.53826396639282 16.92936876917117 76.90546688804262 255 255 255
22.78168588103451 9.296377072951472 71.3975115310644 255 255 255
23.52924489154058 14.158350249331269 73.66299398579865 255 255 255
23.52924489154058 14.158350249331269 73.66299398579865 255 255 255
23.28245067020709 -0.1573629176845007 72.87889047096536 255 255 255
22.64481131982225 10.158291178982314 70.88355370737058 255 255 255
3.759952959444341e-08 3.7599529651668713e-08 1.270079443567641e-07 255 255 255
18.7320625757841 11.509392910903921 67.81055438273185 255 255 255
22.408057954840565 9.562576155180532 70.0995476039881 255 255 255
22.31269335704741 8.90296566189705 69.75057191732995 255 255 255
23.180657186510217 -1.8913229668468012 72.45301418293052 255 255 255
24.613882266634835 -2.2000495512124503 76.90835786306086 255 255 255
-4.128252479550589 -2.907944930634243 -13.15786734150493 255 255 255
22.827284589576777 -1.0784487041519186 71.2307340823764 255 255 255
22.827284589576777 -1.0784487041519186 71.2307340823764 255 255 255
23.12234260191601 -0.5817816275025665 72.1389349178516 255 255 255
22.971423331165653 11.272852697591475 71.65871720170712 255 255 255
22.983429595117247 11.743931607926683 71.6887656607658 255 255 255
22.747244875118955 6.399513493839117 70.92720190455647 255 255 255
22.94859003266165 9.468451500378283 71.3527287227761 255 255 255
10.711087621960132 4.271042509126196 33.05705712409929 255 255 255
22.83376596629349 9.859076118329606 70.93205523094211 255 255 255
23.59551784609514 13.580793298876507 73.12312040705164 255 255 255
22.839537663851655 0.2613898115270588 70.76789676350856 255 255 255
24.0560833239563 14.99180880061828 74.3814354470847 255 255 255
23.483136982922538 -0.5268457644085831 72.59005848612537 255 255 255
22.816691203820177 10.661263478778132 70.50706686995424 255 255 255
23.4742457372985 -0.19956954107171293 72.52579459044883 255 255 255
22.952779593391533 -0.9649454713822317 70.90046243439647 255 255 255
23.721513458941583 7.439585136409874 73.2546253023195 255 255 255
23.463391620789807 10.975015853745145 72.40210115824105 255 255 255
23.929810686249827 13.29181224949017 73.83833054290872 255 255 255
24.3687590005326 0.929101080509747 75.06827318939438 255 255 255
3.759352785351958e-08 3.7605434464449835e-08 1.2700837483033637e-07 255 255 255
23.764513243254463 9.852564523712207 73.12025150225699 255 255 255
23.787053003046662 6.811799228052912 73.17338642390521 255 255 255
26.266654476721435 7.9615387672021845 80.78131637336557 255 255 255
26.266654476721435 7.9615387672021845 80.78131637336557 255 255 255
24.31607162133943 -0.43013008555958465 74.77378595440737 255 255 255
24.31607162133943 -0.43013008555958465 74.77378595440737 255 255 255
24.66443818366468 15.41343894629552 75.63061936082246 255 255 255
22.714471912945825 8.489776506172943 69.59758339002069 255 255 255
23.25318188609476 8.93542498175728 71.23630802517646 255 255 255
23.258733479413966 11.360669441754323 71.2486746085266 255 255 255
23.258733479413966 11.360669441754323 71.2486746085266 255 255 255
23.12347661710151 9.811811663849074 70.81400548964756 255 255 255
23.12347661710151 9.811811663849074 70.81400548964756 255 255 255
3.7593527498024175e-08 3.760543407079998e-08 1.270083750693292e-07 255 255 255
22.968531186767265 10.924625892859716 70.19666101852984 255 255 255
25.968011675269 17.17515313530074 79.2757635370982 255 255 255
