ply
format ascii 1.0
element vertex 272
property float x
property float y
property float z
property uchar red
property uchar green
property uchar blue
end_header
-1.1343264835469066e-10 -9.011854457951362e-11 -1.4584861871903433e-09 255 0 0
0.12862477368818878 -0.2748397710301722 -0.952847715243222 255 0 0
6.329695735446876e-08 6.329689231081668e-08 2.0737701918657188e-07 255 255 255
0.05479787238261002 -0.07822383716063852 -0.21607732519755585 255 255 255
-0.4679822528203349 0.45818430462757787 1.939105856025219 255 255 255
-0.4679822528203349 0.45818430462757787 1.939105856025219 255 255 255
-0.011742389042286076 -0.01637276151321999 0.08074640407200812 255 255 255
6.329690218578338e-08 6.329690057374994e-08 2.073769653879028e-07 255 255 255
0.16267473344769545 -0.16871747407656143 -0.6788615424306365 255 255 255
6.329695735446899e-08 6.329689231081667e-08 2.0737701918657071e-07 255 255 255
0.16698018469488451 -0.17757529060187002 -0.7390475825266919 255 255 255
0.11808800134140245 -0.14321831864163775 -0.529767160404434 255 255 255
-0.4344163192666465 0.43782317608125176 2.000463279686104 255 255 255
6.329690769012125e-08 6.32969064810963e-08 2.0737696012937653e-07 255 255 255
-0.41957139612101485 0.43742868724738315 1.9542892818881867 255 255 255
-0.41957139612101485 0.43742868724738315 1.9542892818881867 255 255 255
0.17504116563022898 -0.1739121010357022 -1.1654269449391799 255 255 255
-0.4165262275624309 0.4200961646299448 2.0976025559064424 255 255 255
6.329689117710804e-08 6.329688875905823e-08 2.0737697590495587e-07 255 255 255
-0.3923659305608424 0.4398012740785676 1.9960682556531242 255 255 255
6.329689117710817e-08 6.329688875905839e-08 2.0737697590495518e-07 255 255 255
-0.3783617950756066 0.4192932230232616 1.9633540224652803 255 255 255
6.329695735446885e-08 6.329689231081673e-08 2.0737701918657145e-07 255 255 255
6.329695735446945e-08 6.329689231081692e-08 2.073770191865722e-07 255 255 255
8.451566815467503 9.023895595670655 -43.707718618991606 255 255 255
6.329695735446897e-08 6.329689231081627e-08 2.0737701918657093e-07 255 255 255
6.329694630402398e-08 6.329690294158873e-08 2.0737699424231503e-07 255 255 255
-0.006034805572523906 -0.004233696071607852 0.05686579117951078 255 255 255
-0.7186094394366009 0.46616050061848285 4.611181389249487 255 255 255
6.32968911771079e-08 6.329688875905832e-08 2.073769759049555e-07 255 255 255
1.9432998802523513 0.6863882324719353 -18.96948747008009 255 255 255
0.1572268152806593 -0.15420849057063976 -1.2073962189528944 255 255 255
6.329695735446892e-08 6.329689231081638e-08 2.0737701918657108e-07 255 255 255
-0.3430320627439493 0.44907372084187125 1.961709498312154 255 255 255
0.1520386124263399 -0.2046607556285576 -1.1704430250393627 255 255 255
-23.727615057317802 -21.21751847671728 135.95476830452986 255 255 255
-6.197177196672442 -5.95846319195985 41.04880482488322 255 255 255
-0.689346244727034 0.24426048955856985 4.0045156951526 255 255 255
-1.4597160088583052 -1.1642279496202552 8.349479015074914 255 255 255
6.329690218578342e-08 6.329690057374995e-08 2.0737696538790374e-07 255 255 255
-0.34894580622480337 0.4709189868649223 2.032724065735291 255 255 255
-0.3580894140201592 0.4182675110569357 2.0941214059649034 255 255 255
-0.3384645509540644 0.43177772544396487 1.9823542430643362 255 255 255
60.35981649621343 66.19982789515747 -409.66924363774126 255 255 255
0.1596895538395799 -0.04886139606612588 -0.7625542843530129 255 255 255
-1.6471139316339813 -1.0003158190898618 9.857842996319299 255 255 255
-0.6792562810902665 0.22847762402514601 4.110101327979357 255 255 255
6.329695735446872e-08 6.329689231081673e-08 2.073770191865711e-07 255 255 255
0.12992211807331427 -0.2138154031260548 -0.8061814097951863 255 255 255
-0.5517640044231301 0.3634875384954803 3.4177122957931516 255 255 255
6.329689117710823e-08 6.32968887590584e-08 2.073769759049554e-07 255 255 255
6.329689117710817e-08 6.329688875905832e-08 2.0737697590495545e-07 255 255 255
-0.6354179715032613 0.16072756532771315 3.971772114981436 255 255 255
-0.6354179715032613 0.16072756532771315 3.971772114981436 255 255 255
-0.3380025396055935 0.38995425187150945 2.1057535519327697 255 255 255
6.32969463040238e-08 6.329690294158888e-08 2.073769942423143e-07 255 255 255
13.535547559162156 15.968789989988116 -84.67061344533319 255 255 255
-0.6352241567980117 0.12513307182647807 4.096796790785312 255 255 255
-0.5395275596712176 0.311409798413264 3.494059099348609 255 255 255
0.15018416678945237 -0.20170966095844906 -1.3528192502639536 255 255 255
-0.6365910126319967 0.114398551938748 4.133428726519532 255 255 255
-0.3236303366571154 0.3832503994169089 2.094122231313103 255 255 255
-0.6128110774202579 0.13851963630262823 3.9911942195621877 255 255 255
-0.629991487821618 0.23657265751990525 4.130515728159714 255 255 255
-0.5247467430678897 0.5057523259784695 3.536618232213842 255 255 255
-0.5308600925877459 0.49521873698734137 3.5802493141169047 255 255 255
-0.5234458545837756 0.3223166914580097 3.5900067530516986 255 255 255
-0.5540219302542914 0.44420172797763646 3.8547888394807797 255 255 255
0.1372827981295849 -0.240894747614691 -1.003752385839789 255 255 255
6.329689117710799e-08 6.32968887590583e-08 2.0737697590495505e-07 255 255 255
10.503434374156997 14.392702206582669 -71.3784271994207 255 255 255
-0.8664711295324177 -0.3635809561402369 6.063440728780511 255 255 255
-0.5596455273013277 0.23775848107992187 3.9675811749194208 255 255 255
-0.77748680984007 -0.26292020418502016 5.739278508026752 255 255 255
-0.8298291625498363 -0.32643890923064933 6.130485932532239 255 255 255
-0.8298291625498363 -0.32643890923064933 6.130485932532239 255 255 255
-0.8298291625498363 -0.32643890923064933 6.130485932532239 255 255 255
-0.26646872674926786 0.4489101400507494 1.971841802531492 255 255 255
-0.2786172900474796 0.37692789914215613 2.0650178475238157 255 255 255
-0.3002322274122565 0.4472530831319257 2.245267622411561 255 255 255
6.329689117710804e-08 6.329688875905816e-08 2.0737697590495553e-07 255 255 255
-0.5787298354417063 0.21362573194642717 4.310551559022427 255 255 255
-0.26933609271849185 0.38074706570573214 2.0760875077813155 255 255 255
-0.4696908052640315 0.419510659703053 3.691006438775673 255 255 255
-0.2674457094115696 0.3868743176464109 2.0624384378514455 255 255 255
-0.7746153797552581 -0.3657923522465929 6.045781416172043 255 255 255
-0.4488880439872705 0.2750296760545107 3.5557766503342845 255 255 255
6.32969573544688e-08 6.329689231081622e-08 2.0737701918657087e-07 255 255 255
6.329689117710796e-08 6.329688875905827e-08 2.0737697590495537e-07 255 255 255
-28.411854196379576 -37.0882460576746 226.34195802081052 255 255 255
-0.6003558329416879 0.01571047559626406 4.833660224447868 255 255 255
-0.25636486763267746 0.38262329085974756 2.0613375899270387 255 255 255
-0.25636486763267746 0.38262329085974756 2.0613375899270387 255 255 255
-0.24046991633880793 0.441085378179931 1.948075757532459 255 255 255
-0.24046991633880793 0.441085378179931 1.948075757532459 255 255 255
-0.24046991633880793 0.441085378179931 1.948075757532459 255 255 255
-0.48919545238509005 0.1105321770658695 4.005528377876819 255 255 255
-0.25009371451946477 0.42339251376687487 2.0375989959769587 255 255 255
-0.45338844122218597 0.1747813561930832 3.7728326690770086 255 255 255
-0.25159102628705243 0.45085477102613447 2.089912280314865 255 255 255
-0.5680206455528498 0.014993225889930855 4.836534385983943 255 255 255
-0.5881953556388775 -0.014261389539795085 5.021945167371478 255 255 255
-0.46587016880343923 0.06966308624350667 4.054735527680384 255 255 255
-0.71271863539639 -0.5005379575152832 6.146451664767657 255 255 255
-0.6246123704372987 -0.09936771549061604 5.530983389480576 255 255 255
-0.6169923395640915 -0.12434052863537572 5.471607336197936 255 255 255
-0.42468764156636646 0.16596258593214172 3.772664241208889 255 255 255
-0.21235201351580407 0.40650615999440726 1.909821502243022 255 255 255
-0.42451852177324423 0.11752617216640411 3.924280746209853 255 255 255
0.009381313362339012 0.3100677010185259 -2.6822290050588227 255 255 255
-0.01855454782093156 -0.05281204900592417 0.24168736329501816 255 255 255
-0.7033880903559276 0.4813492098779054 6.283420071826988 255 255 255
-0.1843894228480584 0.3389219726791687 1.8593689728131635 255 255 255
-6.258726304605037 -10.96438437679804 63.2707328171169 255 255 255
-0.0533843129067007 0.01037014775200731 0.5294014165098534 255 255 255
6.329695735446885e-08 6.32968923108165e-08 2.0737701918657138e-07 255 255 255
6.32969374636679e-08 6.329691144620662e-08 2.0737697428690811e-07 255 255 255
-0.16060885868525157 0.33533445951899093 1.84266991614037 255 255 255
-0.14876355261307805 0.3893497711901249 1.7616522294489951 255 255 255
-0.2108441031296662 0.2329888511589098 2.505734331900407 255 255 255
-0.21763167377726736 0.202027816897451 2.6058455804816405 255 255 255
-0.21763167377726736 0.202027816897451 2.6058455804816405 255 255 255
-0.14727333822267363 0.3576996103138519 1.772190926089987 255 255 255
-0.40083993431456666 -0.3417814712985906 4.933388720771777 255 255 255
-0.14273859811863557 0.3592268716791217 1.8010569248687112 255 255 255
6.329695735446875e-08 6.329689231081647e-08 2.0737701918657114e-07 255 255 255
-0.34366544399640964 -0.22721974116838137 4.477106230988277 255 255 255
-0.1600690186120031 0.3240780268011313 2.1200852075172465 255 255 255
-0.1427884583128374 0.3875832847381953 1.8901157460823033 255 255 255
6.329694630402383e-08 6.329690294158877e-08 2.073769942423138e-07 255 255 255
6.329690769012088e-08 6.329690648109586e-08 2.0737696012937733e-07 255 255 255
6.329695735446885e-08 6.329689231081642e-08 2.0737701918657135e-07 255 255 255
-0.1557156322820426 0.3175471908019325 2.121528076620392 255 255 255
-0.1557156322820426 0.3175471908019325 2.121528076620392 255 255 255
-0.152333090587072 0.3344864888980055 2.1428202352056775 255 255 255
-0.12985915986470511 0.36762461131951063 1.8376126000299027 255 255 255
-0.12985915986470511 0.36762461131951063 1.8376126000299027 255 255 255
-0.35379258802371555 -0.364046333061774 4.942285441923667 255 255 255
-0.35154748255079177 -0.4048241232337267 5.011868544798288 255 255 255
-0.127589767999847 0.4122547240788383 1.831240446925226 255 255 255
-0.12277422578836934 0.3780528776582225 1.8555919354587058 255 255 255
-0.11394315452071166 0.381965826615607 1.7896479659243114 255 255 255
-0.14587301661343896 0.2782977769261662 -5.542947265585869 255 255 255
-3.931413630727279 -10.737684810914272 83.3523334883758 255 255 255
-0.1792798100420175 0.178512714409147 3.467772579224113 255 255 255
-0.29414036242239827 -0.40037410046402394 5.652672784774033 255 255 255
-0.18097347706934044 0.15571091605974471 3.561213725446148 255 255 255
-0.18097347706934044 0.15571091605974471 3.561213725446148 255 255 255
1.1271211420624596 1.3020583953481533 -8.56044427134989 255 255 255
-0.1516450153662391 0.2969858312483169 3.227210866668474 255 255 255
-0.17504480559282054 0.124317432070023 3.655917589340248 255 255 255
-0.17504480559282054 0.124317432070023 3.655917589340248 255 255 255
-0.09022435785494208 0.3432427017638475 1.905993944049698 255 255 255
-0.1745740183373693 0.10705302339398753 3.777587713366194 255 255 255
-0.1745740183373693 0.10705302339398753 3.777587713366194 255 255 255
-0.15760001097057574 0.15253551010428407 3.545417949062825 255 255 255
-0.09198178175826308 0.31056928149352003 2.0976252992014364 255 255 255
-0.07664513788259851 0.39158740882895604 1.8083119342287695 255 255 255
-0.19744300380866575 0.5538305830069297 5.415934854440263 255 255 255
-0.07951565519383097 0.36855953276236536 1.9027073873309757 255 255 255
-0.1465675674090937 0.13337904839798534 3.569995004827458 255 255 255
-0.1477520125434883 0.08159433768886998 3.8320491381577093 255 255 255
6.329695735446889e-08 6.329689231081642e-08 2.07377019186571e-07 255 255 255
-0.1272960716167112 0.2726784906254923 2.8530891270546923 255 255 255
-0.005622003554253891 -0.05445772171787345 -1.9450525166264114 255 255 255
-0.11977107020235044 0.11314206790159437 3.6102985217646903 255 255 255
-0.2023994800839241 0.38652604688409686 5.127060584604267 255 255 255
0.15912995757161655 -0.09075274097432408 -1.7235869778023307 255 255 255
0.22337097539947823 -0.12283039826381018 -2.079314726286376 255 255 255
-0.10355917625454078 0.10461567329856175 3.6527056149808876 255 255 255
-0.031988981079575624 0.28685083724744986 1.72558779009939 255 255 255
-0.15911402453201878 -0.40129910231363264 5.569122600017797 255 255 255
-0.10241499250121851 0.11639729705336332 3.6287757943322125 255 255 255
0.1273694236895684 -0.37633710408103255 -2.4955421176686228 255 255 255
-0.08033280294325885 0.20129869615301263 3.0490671745747036 255 255 255
-0.0915386669799186 0.24254358113889773 4.043235908115915 255 255 255
-0.08692365334907207 0.25245511099175644 4.017211689157021 255 255 255
-0.2871890869657759 0.1860797713891175 -11.017122621585097 255 255 255
6.329694077880134e-08 6.329690825697497e-08 2.073769817701852e-07 255 255 255
6.329694630402385e-08 6.329690294158877e-08 2.073769942423138e-07 255 255 255
6.329695735446885e-08 6.329689231081642e-08 2.073770191865711e-07 255 255 255
-0.06363790287329024 0.34688338627401877 3.616422023239341 255 255 255
6.329694630402379e-08 6.32969029415888e-08 2.0737699424231394e-07 255 255 255
6.329695735446889e-08 6.329689231081642e-08 2.0737701918657156e-07 255 255 255
-0.058767272890874044 0.27319111828504467 2.919985324479972 255 255 255
0.04351944567549026 -0.4737655750276218 -2.4436572606002374 255 255 255
-0.05813066459438107 0.23681330467576922 2.784501676039355 255 255 255
6.32969573544689e-08 6.32968923108165e-08 2.073770191865714e-07 255 255 255
0.041495993284251624 0.01659560774827207 -2.409483638496868 255 255 255
-0.015500532675504636 0.35227492440176783 4.9064708469755605 255 255 255
0.016037546435031434 0.18296777074950984 3.701498981480526 255 255 255
0.015384275775288515 0.12646259805101281 2.508030465008004 255 255 255
-0.004593074524055177 -0.30099716939307813 7.119998573721354 255 255 255
-0.004593074524055378 -0.3009971693930772 7.119998573721363 255 255 255
0.01937408905578721 0.4767934906482262 5.069358599784535 255 255 255
-0.012202945919313016 0.12595305769017714 2.0056084909076186 255 255 255
0.02553032456715775 0.05724309980369025 3.7181342565273687 255 255 255
6.32969573544688e-08 6.329689231081646e-08 2.0737701918657114e-07 255 255 255
-0.00435035271989987 -0.10649931545093594 -0.37657437613318506 255 255 255
6.32969573544688e-08 6.329689231081654e-08 2.0737701918657124e-07 255 255 255
0.1285504740192676 -0.38504393409018345 4.106956986581796 255 255 255
-0.012388015774772658 -0.05054162154862943 -0.03250028034861421 255 255 255
0.07056702072935275 0.22128986048024699 3.137755473538969 255 255 255
0.07759295880671899 0.27048257594037856 3.886912797462989 255 255 255
0.04293245842664454 0.37640320043644343 1.7517302623595832 255 255 255
0.0940633699433158 0.26891166017558155 3.6964892580808795 255 255 255
0.12060883791976515 0.3501837515154564 3.5034607893171748 255 255 255
0.12060883791976532 0.3501837515154563 3.503460789317174 255 255 255
0.017375350943322713 0.0058114510333749335 3.8320487326005432 255 255 255
0.1189291950799776 0.2525435480468891 3.675090792640839 255 255 255
0.046273331594413186 -0.31201890341849375 5.531633259446636 255 255 255
0.14851034048688905 0.20337021096587732 3.8759654830341037 255 255 255
-0.4169133162491252 0.43070895200146875 -4.529927914717799 255 255 255
0.14552998641416065 0.2757311885222368 3.5511179728590694 255 255 255
0.14552998641416065 0.2757311885222368 3.5511179728590694 255 255 255
0.15593012385120705 0.30761850661674806 3.565540086717122 255 255 255
0.18426900417127676 0.3772261075252131 4.043069608555029 255 255 255
0.08890085877303776 0.30844889451894797 3.0269762888931617 255 255 255
0.14267085226893528 0.29933170557000155 3.4663397257134845 255 255 255
0.02397907834970028 -0.13063135056700562 -0.8548738871687721 255 255 255
6.329695735446884e-08 6.329689231081639e-08 2.0737701918657124e-07 255 255 255
0.10951052908241565 0.37674254636783566 1.6884342994612518 255 255 255
0.31600939233248543 -0.23374200959728586 4.728803538331287 255 255 255
0.13675098851602238 0.21885484787864526 1.4202050750729625 255 255 255
6.32969573544688e-08 6.329689231081646e-08 2.0737701918657122e-07 255 255 255
0.5189497737357367 1.105040909755149 10.946571726774977 255 255 255
0.29372643557783923 0.43905341744968696 3.60268037052958 255 255 255
0.24320282107890126 0.12245485400766198 3.230638520582775 255 255 255
0.1451719230561553 0.36723963671968635 1.719092242162532 255 255 255
0.06383147559577272 0.10989944166053192 0.4382821578665622 255 255 255
0.39866668479536566 -0.3442803524707111 4.421525779450981 255 255 255
4.687613293345204 -10.089774626429547 47.97731890824667 255 255 255
-0.04453737802438055 -0.1307115248184876 -1.6633490287910522 255 255 255
-0.011024231853432936 -0.043156986691549194 -0.046091581026613045 255 255 255
0.18227884969718763 0.3653983863429696 1.685866907421833 255 255 255
0.3547737162349422 -0.02382242790635224 3.1329231176783727 255 255 255
-0.001913594122383209 -0.01910208676576231 0.007172557559710512 255 255 255
6.329695735446889e-08 6.329689231081642e-08 2.0737701918657122e-07 255 255 255
0.21534730564853105 0.3561412529508562 1.6335657453336256 255 255 255
0.11646025354502336 -0.1520405806437613 1.4913453767719278 255 255 255
-1.560085686023633 0.4420804663267429 -7.369099970265781 255 255 255
5.312822388018788 -7.711884900104006 37.45799439413197 255 255 255
1.8414947714240997 -0.8528407727528188 11.267642003198633 255 255 255
0.7063729370198538 -0.343369018722704 4.872369080964147 255 255 255
0.039401059025864306 -0.0036676755731288816 0.3728388921019882 255 255 255
0.022475959870008843 -0.05564961530686185 0.35701628932797924 255 255 255
0.6919496656718728 -0.3005678359666588 4.652509388949187 255 255 255
0.7406474232836705 -0.39516773801455196 4.907885235756982 255 255 255
4.7388044847370026 -2.332725495805041 18.845082662883367 255 255 255
1.5184788757143552 -1.5605163284499186 9.533593323644013 255 255 255
0.2529337913096883 -0.1279373488637895 1.9541802092199418 255 255 255
-0.005687844181053072 -0.08908457331143345 0.08567912095748022 255 255 255
3.279520890031396 -3.1987769003830273 19.026301561965965 255 255 255
0.8259434082011752 -0.3452933466129769 4.772371929221515 255 255 255
0.017374783418405884 -0.022226734229908833 0.1458485127145236 255 255 255
0.02460819454280061 -0.09823231539397677 0.3831390526552174 255 255 255
0.4034520680018597 -1.3165317893013688 5.196433753478652 255 255 255
0.8671029950390329 -0.4063044932885806 4.868911053611384 255 255 255
-0.0013327587669552544 -0.046866497951219735 0.044708178548172293 255 255 255
0.8223742224389959 -0.33518762355972875 4.683368105010771 255 255 255
0.8033433829094941 -0.5907368593743212 3.2636180985772625 255 255 255
0.9011467561584087 -0.408232743650828 4.861330995270339 255 255 255
0.40021553488807476 -0.9993909787201426 4.108704383187638 255 255 255
0.15372340500002843 -0.04641655677389464 0.7870443684773963 255 255 255
2.6758524214232287 -2.4125177994693496 12.186021148527264 255 255 255
-0.12083319309642407 -0.2648829656337187 -1.8339768782829142 255 255 255
-0.029077399884643123 0.3727104065852425 -2.907208402656494 255 255 255
0.6877899534866698 -1.1008499455673462 4.8399286033864515 255 255 255
2.9627904105630667 -2.3953703598093012 13.306078984642697 255 255 255
0.002242251875435871 -0.025060606619948175 0.028410390539454676 255 255 255
0.058027346833459933 -0.07939324123963967 0.45305254344939355 255 255 255
0.09857308656831737 -0.1764696122269263 0.8997073554095216 255 255 255
